# .PCD v0.7 - Point Cloud Data file format
VERSION 0.7
FIELDS x y z rgb
SIZE 4 4 4 4
TYPE F F F U
COUNT 1 1 1 1
WIDTH 183
HEIGHT 1
VIEWPOINT 0 0 0 1 0 0 0
POINTS 183
DATA ascii
-0.17447658 0.0044828723 0.95837492 4283899904
-0.16898538 0.0050443402 0.95900005 4284358915
-0.17290877 0.011770126 0.95900005 4283966976
-0.17597973 0.0061845914 0.96199995 4283768320
-0.16470779 0.0051796841 0.96428233 4284489730
-0.15852675 0.0076296297 0.96700007 4284490496
-0.17533483 0.01571108 0.96261543 4283899904
-0.16539727 0.014912653 0.96468443 4284490243
-0.15852675 0.01271605 0.96700007 4284293121
-0.17452689 0.024872819 0.96588922 4283899136
-0.16677789 0.024189347 0.96659112 4284292610
-0.17390712 0.036089357 0.96700042 4283636480
-0.16802141 0.037809052 0.96700013 4284162304
-0.17333388 0.043460626 0.96700007 4283242759
-0.16785187 0.043234568 0.96700007 4284163584
-0.16071931 0.00085036666 0.97000003 4284553216
-0.15483315 0.004769092 0.97391164 4284490241
-0.1611445 0.018282883 0.97000003 4284622084
-0.15464564 0.015713252 0.97463882 4284227073
-0.17687626 0.029195921 0.97000009 4283636992
-0.16315478 0.026699247 0.97141188 4284622346
-0.15569112 0.025211176 0.9758237 4284227843
-0.17772664 0.034014665 0.97000015 4283505408
-0.16470057 0.035244014 0.97109985 4284425223
-0.15762319 0.034319162 0.97600007 4284621574
-0.17658935 0.046573389 0.97060013 4283774497
-0.16490136 0.045097664 0.9718619 4284497452
-0.15705197 0.044647392 0.97650021 4284493344
-0.1754216 0.054779995 0.97310507 4284039465
-0.16493413 0.054676417 0.9756155 4284434233
-0.1576764 0.053274591 0.97749996 4284036128
-0.17451085 0.064838767 0.97489184 4284102168
-0.16497199 0.065243423 0.9763552 4284364825
-0.15861531 0.068590403 0.97800004 4284035849
-0.17448871 0.07527177 0.97566676 4283378177
-0.16438991 0.075348765 0.97666675 4284365061
-0.15792939 0.076135345 0.97800004 4284759298
-0.17519131 0.084499568 0.97800022 4282853377
-0.16514771 0.083737433 0.9780001 4284036609
-0.15775792 0.083165862 0.9780001 4285090560
-0.17672744 0.095169179 0.97799993 4282328576
-0.14878173 -0.00086000998 0.98100007 4284555264
-0.15050174 0.018060209 0.98100007 4283965952
-0.15093175 0.025370296 0.98100007 4284097027
-0.15303737 0.034699339 0.98133343 4284621832
-0.15233643 0.044777855 0.98100001 4284621575
-0.15390718 0.055866316 0.98194742 4284229895
-0.16116586 0.064156741 0.98100007 4283705612
-0.15489523 0.064918511 0.98330772 4284034308
-0.15363008 0.074821249 0.98428583 4284891909
-0.17286201 0.088581033 0.98100013 4282984448
-0.16387968 0.087816574 0.98100007 4284365573
-0.15411022 0.085541673 0.98264998 4285419008
-0.17398003 0.093913093 0.98100013 4282722048
-0.16494834 0.094947256 0.98287499 4284103427
-0.15530927 0.095046408 0.98639393 4285551104
-0.15045002 0.098270826 0.99200004 4285813248
-0.15960155 0.099374548 1.1450001 4282200579
-0.1562885 0.10185252 1.1438571 4282004502
-0.15486369 0.10020773 1.1546 4281939754
-0.15064903 0.099407859 1.169 4281613117
-0.14961807 0.10076319 1.161 4281940029
-0.1661257 0.093897134 1.177 4283182848
-0.15501566 0.09634608 1.1751055 4281875000
-0.16303019 0.10008816 1.177 4282397958
-0.15012479 0.088004179 1.1810001 4281019179
-0.14805409 0.088004179 1.1810001 4281084972
-0.1634987 0.094270073 1.1817058 4282201111
-0.15530689 0.09075366 1.182143 4281941053
-0.16552518 0.089047417 1.1950001 4282263041
-0.16369179 0.089065246 1.2046667 4281476895
-0.15753174 0.089867093 1.2060001 4280821546
-0.163957 0.087625287 1.2160001 4283450944
-0.15411766 0.088218257 1.2124001 4280231717
-0.16307209 0.085724846 1.2254002 4287992465
-0.15586767 0.087072462 1.2262002 4286677377
-0.16556588 0.084190167 1.2344002 4289635494
-0.15578017 0.085462734 1.2340001 4288322716
-0.16262604 0.079675846 1.245 4288915881
-0.15607736 0.079675846 1.245 4289112747
-0.16563739 0.081727251 1.243 4289505963
-0.15525953 0.082650475 1.2423334 4289310124
-0.17218083 0.078364357 1.2590001 4284440420
-0.16515094 0.077261791 1.2531112 4289047474
-0.15453368 0.077644475 1.2529233 4289178794
-0.17053358 0.080315813 1.2550001 4286616476
-0.17341517 0.074825957 1.2664001 4281479968
-0.16541998 0.074384108 1.2664001 4288784807
-0.15340264 0.07447809 1.268 4289244589
-0.1718635 0.072539784 1.273 4282798931
-0.16581625 0.072824702 1.2780001 4288587436
-0.15560746 0.073214114 1.2770001 4289244331
-0.1524348 0.068877943 1.2880001 4289376684
-0.16356957 0.071629584 1.2867501 4289244344
-0.1556721 0.071067199 1.2867501 4289310123
-0.17169254 0.069359235 1.2970001 4283255374
-0.16417976 0.068231836 1.2941428 4289375918
-0.15543087 0.067908227 1.2941428 4289310892
-0.17374597 0.071541257 1.2953334 4282337643
-0.16650003 0.071357161 1.2920001 4289441967
-0.17483759 0.067647897 1.3035001 4281811776
-0.16517821 0.065567479 1.3030001 4288721074
-0.15565228 0.064185902 1.304143 4289311149
-0.15240324 0.058883071 1.317 4289376688
-0.17515711 0.064530998 1.3145001 4281678917
-0.16472742 0.062894866 1.3140001 4288521393
-0.15336056 0.061881561 1.3153334 4289442479
-0.17731985 0.063742436 1.322 4281545021
-0.16341242 0.061424527 1.322 4289309878
-0.15761766 0.061424527 1.322 4289441967
-0.14834602 0.061424527 1.322 4289442482
-0.17477402 0.059821978 1.3380001 4280230960
-0.16273957 0.058537226 1.3355001 4289311154
-0.15776055 0.059598431 1.3330001 4289442480
-0.1746434 0.062121473 1.3370001 4283323739
-0.16710933 0.061935622 1.3330001 4289836223
-0.17464164 0.057819672 1.3460001 4282533705
-0.16596664 0.055208582 1.348143 4288785072
-0.1569365 0.05722836 1.3460001 4289442224
-0.17385733 0.060045529 1.3430001 4283917151
-0.16836296 0.060045529 1.3430001 4289836726
-0.1513758 0.060313791 1.3490001 4289376434
-0.17211597 0.055789314 1.3540001 4283002479
-0.15340658 0.057079326 1.3565001 4289508275
-0.1771042 0.056242548 1.365 4279708204
-0.1531712 0.055045899 1.365 4289770933
-0.15319926 0.049458027 1.376 4280956984
-0.17611882 0.054283198 1.376 4280697411
-0.16180871 0.05259591 1.3740001 4288849576
-0.1553749 0.052706204 1.3708571 4289112744
-0.17631082 0.049853403 1.3870001 4289442995
-0.16258308 0.048529636 1.3840001 4280300084
-0.15623164 0.047864772 1.3858001 4281218367
-0.14956021 0.04742153 1.3870001 4281285447
-0.17452285 0.052115642 1.3825001 4284248189
-0.16743369 0.052172184 1.3840001 4287600793
-0.1749213 0.046072345 1.3953334 4288783013
-0.16635171 0.04616702 1.3932002 4280958532
-0.15636533 0.045200497 1.3935001 4282928211
-0.17206512 0.050033119 1.3920001 4284707953
-0.16840416 0.050033119 1.3920001 4278466606
-0.15139332 0.045541078 1.404 4282731860
-0.1767623 0.0383191 1.4100001 4289374377
-0.1792345 0.042027399 1.4100001 4289243301
-0.1520403 0.043263499 1.4100001 4282861913
-0.15322644 0.041109528 1.4210001 4283059541
-0.15390584 0.039107222 1.439 4283125334
-0.17887682 0.03526479 1.454 4289309357
-0.16166084 0.03691468 1.452 4283125332
-0.15561184 0.036990948 1.455 4283191126
-0.15657967 0.034652881 1.4640001 4283191381
-0.1610875 0.034794901 1.47 4283125334
-0.1520666 0.034794901 1.47 4283060824
-0.17161275 0.029902223 1.483 4285230443
-0.16403981 0.027412489 1.489 4282402633
-0.15664279 0.027412489 1.4890001 4282929237
-0.16484351 0.031104507 1.4872859 4282730572
-0.15502183 0.031262808 1.4860001 4282994775
-0.164811 0.024918372 1.4960002 4281811263
-0.15396932 0.025967568 1.4960001 4282863448
-0.16403836 0.019843349 1.5090001 4282597207
-0.15943323 0.019764449 1.503 4282005572
-0.17065281 0.02248913 1.5090001 4284044389
-0.16602138 0.02239971 1.503 4282793273
-0.15679798 0.02239971 1.503 4281941830
-0.15815417 0.019935399 1.516 4281614662
-0.15416709 0.022593454 1.516 4282205001
-0.17023376 0.014744656 1.529 4284704121
-0.16465466 0.016062288 1.5270001 4289176745
-0.15414868 0.020106349 1.529 4282206281
-0.16024064 0.01615872 1.536 4289046438
-0.15620096 0.017505281 1.536 4288126366
-0.15754752 0.020198399 1.536 4281877833
-0.1609709 0.0094688768 1.5430001 4289902520
-0.16232359 0.01217427 1.5430001 4289969340
-0.15556012 0.01578146 1.5430001 4289441710
-0.15285473 0.020290449 1.5430001 4282469709
-0.16170117 0.0067941668 1.5500001 4290231230
-0.15855218 0.0086304909 1.5546666 4289902520
-0.15436907 0.014428181 1.5528001 4289507759
-0.15584911 0.0068555339 1.5640001 4290034364
-0.15356395 0.01233996 1.5640001 4289837239
-0.15193772 0.0062015401 1.572 4290034107
